# .PCD v0.7 - Point Cloud Data file format
VERSION 0.7
FIELDS x y z intensity
SIZE 4 4 4 4
TYPE F F F F
COUNT 1 1 1 1
WIDTH 1113
HEIGHT 1
VIEWPOINT 0 0 0 1 0 0 0
POINTS 1113
DATA ascii
5.3723235 -6.0937047 -1.2866734 0.50153345
5.4147344 -6.0560508 -1.2866734 0.55809349
5.456881 -6.0181012 -1.2866734 0.77484757
5.4987621 -5.9798589 -1.2866734 0.87999713
5.5403752 -5.9413247 -1.2866734 0.88516814
5.581718 -5.9025011 -1.2866734 0.89704359
5.6227889 -5.86339 -1.2866734 0.89269286
5.6635857 -5.8239927 -1.2866734 0.88759315
5.7041063 -5.7843122 -1.2866734 0.86735493
5.744349 -5.744349 -1.2866734 0.83499163
5.7843122 -5.7041063 -1.2866734 0.86787206
5.8239927 -5.6635857 -1.2866734 0.87990797
5.86339 -5.6227889 -1.2866734 0.85703075
5.9025011 -5.581718 -1.2866734 0.86781853
5.9413247 -5.5403752 -1.2866734 0.87937307
5.9798589 -5.4987621 -1.2866734 0.84174961
6.0181012 -5.456881 -1.2866734 0.79169786
6.0560508 -5.4147344 -1.2866734 0.68016475
6.0937047 -5.3723235 -1.2866734 0.69168359
6.131062 -5.3296509 -1.2866734 0.62103707
6.1681199 -5.2867184 -1.2866734 0.66295779
6.2048779 -5.2435284 -1.2866734 0.66729075
6.241333 -5.2000828 -1.2866734 0.58426946
6.3517079 -5.1435118 -1.2944952 0.71937519
6.3874612 -5.0990434 -1.2944952 0.5023002
6.4229035 -5.0543265 -1.2944952 0.50016046
6.4580326 -5.0093637 -1.2944952 0.54907101
6.492847 -4.9641562 -1.2944952 0.59202594
6.5273447 -4.9187069 -1.2944952 0.65138549
6.5615244 -4.8730183 -1.2944952 0.62335509
6.5953841 -4.8270917 -1.2944952 0.62941766
6.6289229 -4.78093 -1.2944952 0.80943978
6.662138 -4.7345352 -1.2944952 0.9135195
6.6950288 -4.6879096 -1.2944952 0.81610858
6.7275929 -4.6410556 -1.2944952 0.61492103
6.7598295 -4.5939755 -1.2944952 0.53313005
6.7917366 -4.5466714 -1.2944952 0.62093008
6.8233128 -4.4991455 -1.2944952 0.77145964
6.8545561 -4.4514008 -1.2944952 0.69255733
6.8854656 -4.403439 -1.2944952 0.50244284
6.9462757 -4.3068733 -1.2944952 0.709158
6.9761739 -4.2582746 -1.2944952 0.61413646
7.0057321 -4.2094684 -1.2944952 0.58558893
7.0349488 -4.1604571 -1.2944952 0.59564567
7.0638227 -4.1112428 -1.2944952 0.51859778
7.0494981 -4.0372853 -1.2866734 0.50324523
7.0775113 -3.9879727 -1.2866734 0.62201774
7.1051803 -3.9384656 -1.2866734 0.56460184
7.1758609 -3.9124064 -1.2944952 0.5608573
7.2029996 -3.8622146 -1.2944952 0.56194502
7.1861029 -3.7888021 -1.2866734 0.53188187
7.2123785 -3.7385418 -1.2866734 0.75828254
7.2383022 -3.6880991 -1.2866734 0.76427376
7.2638736 -3.6374769 -1.2866734 0.71227843
7.2890906 -3.5866773 -1.2866734 0.77932316
7.3139524 -3.5357027 -1.2866734 0.74736995
7.3384581 -3.484556 -1.2866734 0.58173746
7.4073634 -3.4541101 -1.2944952 0.56859601
7.3863945 -3.3817556 -1.2866734 0.51118004
7.4098234 -3.3301067 -1.2866734 0.64398557
7.4328914 -3.2782958 -1.2866734 0.56271172
7.5009198 -3.2459378 -1.2944952 0.5134446
7.4779391 -3.1741967 -1.2866734 0.51151884
7.5455089 -3.1408923 -1.2944952 0.53571558
7.5672522 -3.0881386 -1.2944952 0.70994258
7.5886269 -3.0352342 -1.2944952 0.6770978
7.609632 -2.982182 -1.2944952 0.54277664
7.6302657 -2.9289846 -1.2944952 0.50782782
7.650528 -2.8756444 -1.2944952 0.59999645
7.6434674 -2.7518177 -1.2866734 0.62364036
7.6624923 -2.6983895 -1.2866734 0.58715808
7.7278376 -2.660908 -1.2944952 0.89058876
7.7462258 -2.6068931 -1.2944952 0.82151139
7.7642365 -2.5527511 -1.2944952 0.71119076
7.7818689 -2.4984846 -1.2944952 0.64687425
7.7991219 -2.4440966 -1.2944952 0.77272564
7.8159943 -2.3895893 -1.2944952 0.52638996
7.8485966 -2.2802281 -1.2944952 0.52016687
7.8643241 -2.2253795 -1.2944952 0.84727722
7.8796682 -2.1704223 -1.2944952 0.76841056
7.8946285 -2.1153593 -1.2944952 0.84761602
7.909204 -2.0601933 -1.2944952 0.90963233
7.9233942 -2.0049269 -1.2944952 0.91050607
7.9371982 -1.9495628 -1.2944952 0.90244639
7.9506149 -1.8941036 -1.2944952 0.89870191
7.9636445 -1.8385522 -1.2944952 0.89499307
7.9762859 -1.7829111 -1.2944952 0.87366712
7.9885383 -1.7271831 -1.2944952 0.86703396
8.0004015 -1.671371 -1.2944952 0.85990155
8.0118752 -1.6154773 -1.2944952 0.84003782
8.0229578 -1.559505 -1.2944952 0.87200886
8.0336494 -1.5034566 -1.2944952 0.81951427
8.0439501 -1.447335 -1.2944952 0.83775544
8.0538578 -1.3911428 -1.2944952 0.78916585
8.0633736 -1.3348829 -1.2944952 0.81741023
8.0724964 -1.2785578 -1.2944952 0.81593025
8.0812254 -1.2221705 -1.2944952 0.81027782
8.0895605 -1.1657236 -1.2944952 0.85132486
8.0975018 -1.1092198 -1.2944952 0.83138973
8.1050482 -1.052662 -1.2944952 0.8614707
8.1121998 -0.99605292 -1.2944952 0.824507
8.1189556 -0.93939525 -1.2944952 0.8433187
8.1253157 -0.8826918 -1.2944952 0.82275951
8.1312809 -0.82594532 -1.2944952 0.81132984
8.1368484 -0.76915866 -1.2944952 0.85785103
8.1420202 -0.71233445 -1.2944952 0.86803252
8.1467943 -0.6554755 -1.2944952 0.85052246
8.1511717 -0.59858465 -1.2944952 0.70133018
8.1551523 -0.5416646 -1.2944952 0.83360082
8.1587353 -0.48471817 -1.2944952 0.84071541
8.1619196 -0.42774811 -1.2944952 0.81557363
8.1647072 -0.37075719 -1.2944952 0.86204129
8.1670971 -0.31374821 -1.2944952 0.84579724
8.1690884 -0.25672394 -1.2944952 0.84208834
8.170681 -0.19968715 -1.2944952 0.77698725
8.171876 -0.14264064 -1.2944952 0.86098927
8.1726732 -0.085587159 -1.2944952 0.8604365
8.1730709 -0.028529517 -1.2944952 0.87231195
8.1730709 0.028529517 -1.2944952 0.83570486
8.1726732 0.085587159 -1.2944952 0.87949789
8.171876 0.14264064 -1.2944952 0.87241894
8.170681 0.19968715 -1.2944952 0.85259086
8.1690884 0.25672394 -1.2944952 0.88566744
8.1670971 0.31374821 -1.2944952 0.88680857
8.1647072 0.37075719 -1.2944952 0.89062446
8.1619196 0.42774811 -1.2944952 0.91039908
8.1587353 0.48471817 -1.2944952 0.91844088
8.1551523 0.5416646 -1.2944952 0.83884311
8.1511717 0.59858465 -1.2944952 0.88932276
8.1467943 0.6554755 -1.2944952 0.84383583
8.1420202 0.71233445 -1.2944952 0.88037157
8.1368484 0.76915866 -1.2944952 0.78060699
8.1312809 0.82594532 -1.2944952 0.77151316
8.1253157 0.8826918 -1.2944952 0.74389285
8.1189556 0.93939525 -1.2944952 0.63983095
8.1121998 0.99605292 -1.2944952 0.84528011
8.1050482 1.052662 -1.2944952 0.84223104
8.0975018 1.1092198 -1.2944952 0.84811527
8.0895605 1.1657236 -1.2944952 0.82629007
8.0812254 1.2221705 -1.2944952 0.83868265
8.0724964 1.2785578 -1.2944952 0.8461895
8.0633736 1.3348829 -1.2944952 0.75592881
8.0538578 1.3911428 -1.2944952 0.73595804
8.0439501 1.447335 -1.2944952 0.52230662
8.0336494 1.5034566 -1.2944952 0.68057489
8.0229578 1.559505 -1.2944952 0.70120537
8.0118752 1.6154773 -1.2944952 0.55923468
7.9520607 1.661272 -1.2866734 0.66310048
7.9402695 1.7167469 -1.2866734 0.68037874
7.9280906 1.7721382 -1.2866734 0.52795905
7.9155259 1.8274431 -1.2866734 0.79346317
7.902575 1.882659 -1.2866734 0.73870403
7.8892393 1.937783 -1.2866734 0.69259298
7.8755188 1.9928126 -1.2866734 0.5660283
7.8614144 2.047745 -1.2866734 0.73872185
7.8469272 2.1025777 -1.2866734 0.78392357
7.832057 2.1573079 -1.2866734 0.72126532
7.8168054 2.2119329 -1.2866734 0.80653328
7.8011727 2.2664502 -1.2866734 0.92860454
7.7851601 2.320857 -1.2866734 0.92885417
7.7687678 2.3751507 -1.2866734 0.89606291
7.751997 2.4293287 -1.2866734 0.94106841
7.7348485 2.4833882 -1.2866734 0.93165368
7.7173228 2.5373266 -1.2866734 0.92286295
7.6994209 2.5911415 -1.2866734 0.95462
7.6811438 2.64483 -1.2866734 0.85168147
7.6624923 2.6983895 -1.2866734 0.75920975
7.6434674 2.7518177 -1.2866734 0.71734244
7.6240702 2.8051116 -1.2866734 0.83188903
7.5580745 2.8408933 -1.2788517 0.65117151
7.5380573 2.893589 -1.2788517 0.53396809
7.5176725 2.9461436 -1.2788517 0.60454333
7.4969215 2.9985547 -1.2788517 0.5419386
7.4758053 3.0508196 -1.2788517 0.60641563
7.4543242 3.1029358 -1.2788517 0.64175671
7.4324803 3.1549008 -1.2788517 0.59416568
7.410274 3.206712 -1.2788517 0.63153952
7.3877068 3.2583668 -1.2788517 0.746728
7.364779 3.3098629 -1.2788517 0.88737917
7.3414927 3.3611977 -1.2788517 0.86694485
7.3178482 3.4123688 -1.2788517 0.9388752
7.2938471 3.4633734 -1.2788517 0.86164904
7.2694907 3.5142093 -1.2788517 0.83215648
7.2447801 3.5648737 -1.2788517 0.92391497
7.2197161 3.6153646 -1.2788517 0.91137975
7.1943007 3.6656792 -1.2788517 0.81742805
7.1685343 3.7158151 -1.2788517 0.7498306
7.1424184 3.76577 -1.2788517 0.86717665
7.0724316 3.7922046 -1.2710301 0.59024286
7.045785 3.8414867 -1.2710301 0.72755963
7.018795 3.8905816 -1.2710301 0.75566137
6.9914627 3.9394867 -1.2710301 0.63241327
6.9637899 3.9881999 -1.2710301 0.79701149
6.9357777 4.0367188 -1.2710301 0.91498166
6.9074268 4.085041 -1.2710301 0.91997433
6.8787398 4.1331639 -1.2710301 0.91273493
6.8497176 4.1810856 -1.2710301 0.78297848
6.8203616 4.2288032 -1.2710301 0.55980527
6.7906728 4.2763147 -1.2710301 0.70414752
6.7606535 4.3236184 -1.2710301 0.66978711
6.7303042 4.3707108 -1.2710301 0.54669946
6.6583986 4.3904052 -1.2632083 0.76548624
6.6275859 4.4367819 -1.2632083 0.85745871
6.5964499 4.4829431 -1.2632083 0.87356013
6.5649929 4.5288849 -1.2632083 0.75632107
6.5332155 4.5746069 -1.2632083 0.92687494
6.5011196 4.6201053 -1.2632083 0.93147534
6.4687071 4.6653786 -1.2632083 0.90793836
6.4359794 4.7104249 -1.2632083 0.91537392
6.4029379 4.7552414 -1.2632083 0.90150136
6.3695841 4.7998257 -1.2632083 0.70725012
6.3359199 4.8441768 -1.2632083 0.60816306
6.2629256 4.8580232 -1.2553866 0.54291928
6.228858 4.901628 -1.2553866 0.67855996
6.1944866 4.944994 -1.2553866 0.83368993
6.1598134 4.9881186 -1.2553866 0.90804535
6.1248403 5.0310001 -1.2553866 0.91671127
6.0895681 5.073637 -1.2553866 0.92691058
6.0539994 5.1160259 -1.2553866 0.95472699
6.0181355 5.1581659 -1.2553866 0.93493456
5.9819784 5.2000542 -1.2553866 0.8571021
5.9455295 5.2416892 -1.2553866 0.58462608
5.9087911 5.2830691 -1.2553866 0.53054458
5.8351803 5.2910185 -1.2475649 0.56092864
5.7981 5.3316264 -1.2475649 0.55759424
5.7607374 5.3719745 -1.2475649 0.57132411
5.723094 5.4120607 -1.2475649 0.80400127
5.6851716 5.4518833 -1.2475649 0.87937307
5.6469717 5.4914403 -1.2475649 0.90405118
5.6084971 5.5307293 -1.2475649 0.95479834
5.5697489 5.5697489 -1.2475649 0.95433474
5.5307293 5.6084971 -1.2475649 0.91672909
5.4914403 5.6469717 -1.2475649 0.9109875
5.4518833 5.6851716 -1.2475649 0.88901967
5.4120607 5.723094 -1.2475649 0.78046429
5.3719745 5.7607374 -1.2475649 0.67579615
5.2981992 5.7617483 -1.2397431 0.55843228
5.2578459 5.7985964 -1.2397431 0.77991158
5.2172365 5.8351612 -1.2397431 0.84583288
5.1763725 5.8714418 -1.2397431 0.90822369
5.1352563 5.9074364 -1.2397431 0.94299418
5.0938897 5.9431429 -1.2397431 0.94297636
5.0522747 5.97856 -1.2397431 0.95733035
5.0104141 6.0136857 -1.2397431 0.94566882
4.9683089 6.0485182 -1.2397431 0.94392139
4.9259615 6.0830555 -1.2397431 0.89288896
4.8833737 6.1172967 -1.2397431 0.86427015
4.8405485 6.1512399 -1.2397431 0.68861669
4.7672191 6.1458616 -1.2319214 0.54115403
4.7241969 6.1789932 -1.2319214 0.57298243
4.6809449 6.2118235 -1.2319214 0.54085088
4.6374645 6.2443509 -1.2319214 0.5939517
4.5937576 6.2765741 -1.2319214 0.70612675
4.5498276 6.3084912 -1.2319214 0.83780891
4.5056753 6.3401012 -1.2319214 0.87589604
4.4613037 6.3714018 -1.2319214 0.8821547
4.4167147 6.4023924 -1.2319214 0.92721373
4.3719101 6.4330707 -1.2319214 0.95667058
4.3268929 6.4634352 -1.2319214 0.94076532
4.2816644 6.493485 -1.2319214 0.71584463
4.2093306 6.4818006 -1.2240996 0.93204594
4.1639767 6.5110292 -1.2240996 0.820602
4.1184201 6.5399404 -1.2240996 0.79125208
4.0726628 6.5685329 -1.2240996 0.91410792
4.0267072 6.5968051 -1.2240996 0.96134233
3.9805548 6.6247559 -1.2240996 0.96904534
3.9342086 6.6523833 -1.2240996 0.97132772
3.8876708 6.679687 -1.2240996 0.97025782
3.8409433 6.706665 -1.2240996 0.95941657
3.7940288 6.7333164 -1.2240996 0.85351807
3.7469294 6.7596393 -1.2240996 0.62472808
3.6760073 6.7422743 -1.216278 0.69348454
3.6288481 6.7677732 -1.216278 0.91867268
3.5815122 6.792942 -1.216278 0.94377875
3.5340016 6.81778 -1.216278 0.95902431
3.4863188 6.8422856 -1.216278 0.9554224
3.4384661 6.8664579 -1.216278 0.86444849
3.3904457 6.8902955 -1.216278 0.68417674
3.3207664 6.8693352 -1.2084563 0.50920081
3.2727289 6.8923512 -1.2084563 0.81826609
3.2245319 6.915031 -1.2084563 0.93525553
3.1761777 6.9373736 -1.2084563 0.94215614
3.1276686 6.9593782 -1.2084563 0.94504476
3.0790071 6.9810438 -1.2084563 0.93668199
3.0301957 7.0023689 -1.2084563 0.92946041
2.9812365 7.0233531 -1.2084563 0.85501587
2.932132 7.0439944 -1.2084563 0.64997679
2.8642251 7.0185695 -1.2006345 0.58357406
2.8151569 7.0383945 -1.2006345 0.70669734
2.7659514 7.0578761 -1.2006345 0.8185336
2.7166111 7.077014 -1.2006345 0.89324558
2.6671383 7.0958066 -1.2006345 0.88661247
2.6175358 7.114254 -1.2006345 0.90631574
2.5678055 7.1323543 -1.2006345 0.90184015
2.5179501 7.1501069 -1.2006345 0.86940551
2.467972 7.167511 -1.2006345 0.9134838
2.4178736 7.184566 -1.2006345 0.90185797
2.3676574 7.2012706 -1.2006345 0.87908775
2.3173256 7.2176247 -1.2006345 0.83131844
2.2668812 7.2336264 -1.2006345 0.76726937
2.216326 7.2492757 -1.2006345 0.75772977
2.165663 7.2645721 -1.2006345 0.68025392
1.4622482 5.3086586 -0.87212217 0.58036447
1.1164622 4.8359289 -0.78608316 0.59760708
1.0826741 4.8436055 -0.78608316 0.53862202
0.97123867 4.8168068 -0.77826148 0.56199849
0.93758762 4.8234701 -0.77826148 0.56060767
0.90389085 4.8298979 -0.77826148 0.52448201
0.87015003 4.8360906 -0.77826148 0.61534894
0.83636683 4.8420477 -0.77826148 0.63999146
0.80254287 4.8477683 -0.77826148 0.63883245
0.7686798 4.8532529 -0.77826148 0.65388179
0.73477924 4.858501 -0.77826148 0.63867193
0.70084286 4.8635125 -0.77826148 0.57779682
0.66687232 4.8682866 -0.77826148 0.51390821
0.6328693 4.8728237 -0.77826148 0.53040189
0.59883541 4.8771234 -0.77826148 0.53910345
0.52534831 4.8359132 -0.77043974 0.54438144
0.49157473 4.8394628 -0.77043974 0.60062051
0.4577772 4.8427768 -0.77043974 0.74087942
0.42395735 4.8458548 -0.77043974 0.75583965
0.39011684 4.8486962 -0.77043974 0.80146927
0.35625732 4.8513017 -0.77043974 0.80640846
0.32238045 4.8536706 -0.77043974 0.61559856
0.2811482 6.1913643 -0.98162627 0.72998464
0.19002225 6.0466061 -0.95816112 0.61228204
0.14539155 5.9490457 -0.94251764 0.86464465
0.10299429 5.9005389 -0.9346959 0.85424912
0.01956556 5.6050973 -0.88776559 0.83062303
-0.019220792 5.5063291 -0.87212217 0.72955674
-0.05766144 5.5060606 -0.87212217 0.96271533
-0.095237397 5.4561472 -0.86430043 0.9621982
-0.13332586 5.455349 -0.86430043 0.82900041
-0.16985662 5.4049253 -0.85647869 0.9611997
-0.20568991 5.35426 -0.84865695 0.95201671
-0.24082416 5.30336 -0.84083527 0.95158875
-0.27784243 5.3015494 -0.84083527 0.53555506
-0.31191835 5.2501831 -0.83301353 0.89718628
-0.34529072 5.1986017 -0.8251918 0.83299452
-0.38157511 5.1960645 -0.8251918 0.94698834
-0.41388032 5.1440482 -0.81737006 0.9396776
-0.44978216 5.1410336 -0.81737006 0.94529438
-0.4856621 5.1377683 -0.81737006 0.94670302
-0.51652777 5.0851212 -0.80954838 0.92291647
-0.55201572 5.0813909 -0.80954838 0.94780856
-0.5818007 5.0283566 -0.80172664 0.5489105
-0.61689079 5.0241723 -0.80172664 0.94664955
-0.65195078 5.019743 -0.80172664 0.94716662
-0.68697906 5.015069 -0.80172664 0.94188869
-0.72197378 5.0101509 -0.80172664 0.94415319
-0.75693339 5.0049887 -0.80172664 0.85062945
-0.78413063 4.9508061 -0.7939049 0.71637958
-0.81867439 4.9452109 -0.7939049 0.92334437
-0.85317826 4.9393749 -0.7939049 0.72727436
-0.89638573 4.9819026 -0.80172664 0.92844409
-0.93114382 4.975523 -0.80172664 0.94613242
-0.96585655 4.9689012 -0.80172664 0.94693482
-1.0005223 4.9620376 -0.80172664 0.50467175
-1.0351391 4.9549317 -0.80172664 0.92056274
-1.0801417 4.9958534 -0.80954838 0.95467353
-1.1149927 4.9881907 -0.80954838 0.87539673
-1.1497895 4.9802852 -0.80954838 0.96185941
-1.1730853 4.9240971 -0.80172664 0.8265397
-1.2074331 4.9157872 -0.80172664 0.66750473
-1.2417221 4.907238 -0.80172664 0.98972934
-1.2759506 4.8984499 -0.80172664 0.87746513
-1.2973351 4.8417211 -0.7939049 0.72067684
-1.3311049 4.8325458 -0.7939049 0.62522733
-1.3782561 4.8706541 -0.80172664 0.97664136
-1.4122258 4.8609133 -0.80172664 0.96751183
-1.4461267 4.8509355 -0.80172664 0.75992298
-1.4943957 4.887948 -0.80954838 0.97730112
-1.5284834 4.8773961 -0.80954838 0.79645878
-1.5624965 4.8666067 -0.80954838 0.8294462
-1.6118579 4.902494 -0.81737006 0.99636245
-1.6460443 4.8911214 -0.81737006 0.58756822
-1.6801503 4.8795109 -0.81737006 0.64020544
-1.7305781 4.9142427 -0.8251918 0.90262473
-1.7648436 4.9020414 -0.8251918 0.97321779
-1.7990229 4.8896012 -0.8251918 0.90642273
-1.8331147 4.8769226 -0.8251918 0.96216255
-1.8494192 4.8179021 -0.81737006 0.59500372
-1.8830092 4.8048735 -0.81737006 0.98405904
-1.9348472 4.8374634 -0.8251918 0.69713992
-1.9685717 4.8238378 -0.8251918 0.98491496
-2.0211782 4.8555694 -0.83301353 0.98544985
-2.055027 4.8413405 -0.83301353 0.9956314
-2.1083887 4.8721986 -0.84083527 0.96538997
-2.1423514 4.8573608 -0.84083527 0.80296707
-2.1964533 4.8873305 -0.84865695 0.75361079
-2.2510774 4.9167795 -0.85647869 0.50003564
-2.2853479 4.9009442 -0.85647869 0.82377589
-2.3406897 4.929481 -0.86430043 0.99620199
-2.3965402 4.9574814 -0.87212217 0.88285011
-2.0822351 4.2316604 -0.74697459 0.8109197
-2.1117268 4.217021 -0.74697459 0.57849222
-2.1186953 4.1581736 -0.73915285 0.71129775
-2.1476729 4.143281 -0.73915285 0.89606291
-2.1765459 4.1281867 -0.73915285 0.83777326
-2.205313 4.1128912 -0.73915285 0.71258157
-2.2339723 4.0973949 -0.73915285 0.56372809
-2.2625229 4.0816994 -0.73915285 0.525962
-2.2909632 4.0658045 -0.73915285 0.59156233
-2.3192916 4.0497117 -0.73915285 0.60903674
-2.3475072 4.0334215 -0.73915285 0.80653328
-2.3756084 4.0169344 -0.73915285 0.83354729
-2.4035938 4.0002518 -0.73915285 0.83160371
-2.431462 3.9833744 -0.73915285 0.77274346
-2.4592118 3.9663026 -0.73915285 0.67338896
-2.4868417 3.9490376 -0.73915285 0.67321068
-2.5143502 3.9315798 -0.73915285 0.50294214
-2.5417364 3.9139309 -0.73915285 0.62832993
-2.5689986 3.896091 -0.73915285 0.78536785
-2.5961356 3.8780611 -0.73915285 0.51915056
-2.6509042 3.9006872 -0.74697459 0.61524194
-2.6500287 3.8414354 -0.73915285 0.79932958
-2.7051079 3.8632946 -0.74697459 0.76450557
-2.7320127 3.8443153 -0.74697459 0.821868
-2.7587843 3.8251488 -0.74697459 0.8495239
-2.7854214 3.8057957 -0.74697459 0.81006384
-2.8119228 3.7862573 -0.74697459 0.84882849
-2.8382871 3.7665343 -0.74697459 0.78725797
-2.8645132 3.7466276 -0.74697459 0.78593844
-2.8905995 3.7265384 -0.74697459 0.8915695
-2.9470847 3.7450767 -0.75479627 0.54800117
-3.7138951 4.5862784 -0.9346959 0.81075925
-3.7458227 4.5602393 -0.9346959 0.92990619
-3.7775676 4.5339775 -0.9346959 0.98409474
-3.7772529 4.4697752 -0.92687422 0.98100996
-3.8083656 4.4432964 -0.92687422 0.97960132
-4.6211777 5.2416973 -1.1067739 0.77203023
-4.6576591 5.2093081 -1.1067739 0.93484539
-4.693913 5.1766648 -1.1067739 0.97583896
-4.729938 5.1437693 -1.1067739 0.98222244
-4.7657328 5.1106229 -1.1067739 0.98355979
-4.8012953 5.0772276 -1.1067739 0.98393422
-4.8366237 5.0435848 -1.1067739 0.98384506
-4.8717165 5.009696 -1.1067739 0.98370242
-4.9065719 4.975563 -1.1067739 0.97908419
-4.9411879 4.9411879 -1.1067739 0.98313183
-4.975563 4.9065719 -1.1067739 0.98359543
-5.009696 4.8717165 -1.1067739 0.98232943
-5.0435848 4.8366237 -1.1067739 0.96638852
-5.0772276 4.8012953 -1.1067739 0.98243642
-5.1106229 4.7657328 -1.1067739 0.98240077
-5.1437693 4.729938 -1.1067739 0.98290002
-5.1766648 4.693913 -1.1067739 0.98238295
-5.2093081 4.6576591 -1.1067739 0.97348523
-5.2416973 4.6211777 -1.1067739 0.8984701
-5.2738314 4.5844717 -1.1067739 0.63949215
-5.2682118 4.5154037 -1.0989522 0.77263647
-5.2996068 4.4785151 -1.0989522 0.81343389
-5.3307433 4.4414082 -1.0989522 0.98065335
-5.3616199 4.4040842 -1.0989522 0.82238507
-5.3538566 4.3354678 -1.0911304 0.85909915
-5.3453984 4.2671752 -1.0833087 0.93769836
-5.3362494 4.199214 -1.0754869 0.95458436
-5.3264136 4.1315899 -1.0676652 0.90877646
-5.3158956 4.0643091 -1.0598435 0.95920259
-5.3046999 3.9973781 -1.0520217 0.96296495
-5.2928309 3.9308031 -1.0442001 0.97936952
-5.2802925 3.8645899 -1.0363784 0.98698336
-5.2670898 3.7987449 -1.0285566 0.98694766
-5.2532268 3.733274 -1.0207349 0.95219499
-5.2387085 3.6681831 -1.0129131 0.87352449
-5.2235389 3.6034782 -1.0050914 0.79005742
-5.2077236 3.5391655 -0.99726969 0.54505903
-5.2323046 3.5027227 -0.99726969 0.72561604
-5.2154021 3.4389241 -0.98944801 0.96792197
-5.197866 3.3755336 -0.98162627 0.99156594
-5.1797004 3.3125567 -0.97380453 0.51988161
-5.2027001 3.2763152 -0.97380453 0.98919439
-5.2254462 3.2399139 -0.97380453 0.99525696
-5.2479377 3.2033548 -0.97380453 0.99006814
-5.2701731 3.1666396 -0.97380453 0.95834672
-5.2921519 3.1297698 -0.97380453 0.83568704
-5.3138723 3.0927477 -0.97380453 0.56839985
-5.2924805 3.0310321 -0.96598279 0.72648978
-5.3135118 2.99401 -0.96598279 0.94039088
-5.3342843 2.9568419 -0.96598279 0.99063873
-5.3547969 2.9195299 -0.96598279 0.99192256
-5.3750482 2.8820755 -0.96598279 0.96686995
-5.3950377 2.8444808 -0.96598279 0.85562211
-5.4147644 2.8067472 -0.96598279 0.56877428
-5.3902249 2.7464569 -0.95816112 0.74389285
-5.4092674 2.7087593 -0.95816112 0.92528796
-5.4280462 2.6709299 -0.95816112 0.99301022
-5.4465604 2.6329701 -0.95816112 0.99290323
-5.4648089 2.5948822 -0.95816112 0.89636606
-5.4380341 2.5357969 -0.95033938 0.96303624
-5.4556046 2.4977708 -0.95033938 0.96407044
-5.4278646 2.4393792 -0.94251764 0.98013622
-5.4447622 2.4014263 -0.94251764 0.91150457
-5.4160719 2.3437436 -0.9346959 0.99154806
-5.432302 2.3058755 -0.9346959 0.80601621
-5.4026756 2.2489169 -0.92687422 0.99520344
-5.4182439 2.2111444 -0.92687422 0.6986199
-5.3876958 2.1549246 -0.91905248 0.99557793
-5.4026089 2.1172593 -0.91905248 0.58870941
-5.3711538 2.0617929 -0.91123074 0.99741453
-5.33919 2.0068696 -0.90340906 0.61103386
-5.3530707 1.9695464 -0.90340906 0.99764633
-5.3666902 1.9321272 -0.90340906 0.73116153
-5.3334675 1.8782103 -0.89558733 0.99370563
-5.3464499 1.8409302 -0.89558733 0.92757034
-5.3123665 1.7878088 -0.88776559 0.90269607
-5.324718 1.7506782 -0.88776559 0.99686176
-5.2897902 1.6983657 -0.87994385 0.60012126
-5.301518 1.661395 -0.87994385 0.99812776
-5.3129873 1.6243432 -0.87994385 0.81559145
-5.2768717 1.5731037 -0.87212217 0.96137798
-5.287725 1.5362262 -0.87212217 0.99645162
-5.2610474 1.4491339 -0.86430043 0.99705786
-5.2710361 1.4123698 -0.86430043 0.9890874
-5.2329779 1.3630886 -0.85647869 0.63410717
-5.2423663 1.3265227 -0.85647869 0.98336363
-5.2514997 1.289892 -0.85647869 0.99727184
-5.2603765 1.2531985 -0.85647869 0.88338506
-5.2689972 1.2164439 -0.85647869 0.71889377
-5.229166 1.1688571 -0.84865695 0.55700582
-5.2371988 1.1323224 -0.84865695 0.65502298
-5.2449765 1.0957327 -0.84865695 0.5815413
-5.3009081 1.0688506 -0.85647869 0.52098715
-5.3082409 1.0318176 -0.85647869 0.61019576
-5.3153148 0.99473417 -0.85647869 0.59951502
-5.3221297 0.95760232 -0.85647869 0.66121036
-5.3286853 0.92042381 -0.85647869 0.52828002
-5.2862601 0.87513471 -0.84865695 0.62522733
-5.2922406 0.83820862 -0.84865695 0.71757424
-5.2979636 0.80124164 -0.84865695 0.81717843
-5.3034282 0.76423568 -0.84865695 0.88759315
-5.3086343 0.72719246 -0.84865695 0.94764811
-5.3135815 0.69011378 -0.84865695 0.96647763
-5.3182702 0.65300143 -0.84865695 0.97262937
-5.3226991 0.6158573 -0.84865695 0.99400878
-5.326869 0.57868314 -0.84865695 0.99723619
-5.3307791 0.54148078 -0.84865695 0.99704003
-5.3344293 0.50425202 -0.84865695 0.99372345
-5.3378196 0.4669987 -0.84865695 0.98939055
-5.34095 0.42972261 -0.84865695 0.97389537
-5.3438196 0.3924256 -0.84865695 0.97988659
-5.3464289 0.35510942 -0.84865695 0.89420849
-5.3487778 0.31777596 -0.84865695 0.96439141
-5.3508658 0.28042701 -0.84865695 0.98352414
-5.3526936 0.24306439 -0.84865695 0.99636245
-5.35426 0.20568991 -0.84865695 0.99441886
-5.3555651 0.16830543 -0.84865695 0.98473662
-5.3566098 0.13091272 -0.84865695 0.98489714
-5.3573933 0.093513645 -0.84865695 0.99340254
-5.3579154 0.05611001 -0.84865695 0.99621981
-5.3581767 0.018703641 -0.84865695 0.99514997
-5.682292 -0.019835021 -0.69770199 0.99315286
-5.6820149 -0.059504099 -0.69770199 0.99514997
-5.6814613 -0.099170275 -0.69770199 0.99539959
-5.6806307 -0.13883162 -0.69770199 0.99575621
-5.679523 -0.1784862 -0.69770199 0.99556005
-5.6781383 -0.21813208 -0.69770199 0.99509645
-5.676477 -0.25776732 -0.69770199 0.99466854
-5.6745391 -0.29739001 -0.69770199 0.99536395
-5.6723247 -0.33699819 -0.69770199 0.99185121
-5.6698341 -0.37658995 -0.69770199 0.99176204
-5.6670666 -0.41616336 -0.69770199 0.93053031
-5.6640234 -0.45571649 -0.69770199 0.7982775
-5.6607037 -0.49524739 -0.69770199 0.7853322
-5.6571083 -0.53475416 -0.69770199 0.5619272
-5.6532373 -0.5742349 -0.69770199 0.59873044
-5.6490908 -0.61368763 -0.69770199 0.61542028
-5.6446686 -0.65311044 -0.69770199 0.58236152
-5.6399717 -0.69250143 -0.69770199 0.6977818
-5.6349998 -0.73185867 -0.69770199 0.68795693
-5.6297531 -0.77118021 -0.69770199 0.63733464
-5.6242318 -0.8104642 -0.69770199 0.62091225
-5.6675062 -0.85712969 -0.70379543 0.62069827
-5.6613841 -0.89667517 -0.70379543 0.74927783
-5.6549864 -0.9361769 -0.70379543 0.70578796
-5.6483126 -0.97563303 -0.70379543 0.98377377
-5.6413641 -1.0150416 -0.70379543 0.89558148
-5.63414 -1.0544007 -0.70379543 0.93504155
-5.6266418 -1.0937084 -0.70379543 0.98421955
-5.6188693 -1.1329628 -0.70379543 0.98074245
-5.6108227 -1.1721619 -0.70379543 0.98691201
-5.6025028 -1.2113041 -0.70379543 0.99349165
-5.5939102 -1.2503871 -0.70379543 0.99584538
-5.5850444 -1.2894092 -0.70379543 0.99648726
-5.5759068 -1.3283683 -0.70379543 0.98247212
-5.5664968 -1.3672628 -0.70379543 0.98450482
-5.5568161 -1.4060906 -0.70379543 0.95991582
-5.5468645 -1.44485 -0.70379543 0.93828678
-5.5366426 -1.4835389 -0.70379543 0.955993
-5.5261507 -1.5221554 -0.70379543 0.97118503
-5.5153894 -1.5606979 -0.70379543 0.94900322
-5.5043592 -1.5991642 -0.70379543 0.8650369
-5.4930611 -1.6375526 -0.70379543 0.76944476
-5.4814949 -1.6758611 -0.70379543 0.63819051
-5.4696617 -1.7140881 -0.70379543 0.52054137
-5.457562 -1.7522315 -0.70379543 0.67288971
-5.4451962 -1.7902894 -0.70379543 0.87598515
-5.4325647 -1.8282601 -0.70379543 0.96226954
-5.4196692 -1.8661417 -0.70379543 0.99251097
-5.4065089 -1.9039323 -0.70379543 0.98748261
-5.3930855 -1.9416302 -0.70379543 0.84144646
-5.3793988 -1.9792334 -0.70379543 0.52118325
-5.4119043 -2.0342011 -0.70988894 0.79446167
-5.3975711 -2.0719335 -0.70988894 0.93204594
-5.3829751 -2.1095648 -0.70988894 0.96879572
-5.3681164 -2.1470933 -0.70988894 0.98496842
-5.3529959 -2.1845171 -0.70988894 0.97870976
-5.337615 -2.2218347 -0.70988894 0.97624904
-5.3219738 -2.2590437 -0.70988894 0.98703682
-5.3060732 -2.2961428 -0.70988894 0.99031776
-5.2899137 -2.3331299 -0.70988894 0.99113798
-5.2734966 -2.3700035 -0.70988894 0.99224353
-5.2568226 -2.4067612 -0.70988894 0.99013942
-5.239892 -2.4434018 -0.70988894 0.99063873
-5.2227063 -2.4799232 -0.70988894 0.97840661
-5.205266 -2.516324 -0.70988894 0.92691058
-5.1875725 -2.5526021 -0.70988894 0.76266897
-5.1696253 -2.5887556 -0.70988894 0.71864414
-5.1514268 -2.624783 -0.70988894 0.60857314
-5.1770368 -2.683521 -0.71598238 0.55233407
-5.1581764 -2.7195978 -0.71598238 0.67672336
-5.1390643 -2.755542 -0.71598238 0.71588033
-5.1197019 -2.791352 -0.71598238 0.84306908
-5.10009 -2.8270261 -0.71598238 0.92617953
-5.0802293 -2.8625622 -0.71598238 0.93965977
-5.0601215 -2.8979588 -0.71598238 0.98536074
-5.0397668 -2.9332142 -0.71598238 0.98890913
-5.0191665 -2.9683268 -0.71598238 0.98787493
-4.9983215 -3.0032945 -0.71598238 0.97507221
-4.9772329 -3.038116 -0.71598238 0.97485822
-4.9559016 -3.0727892 -0.71598238 0.88643414
-4.934329 -3.1073127 -0.71598238 0.69473273
-4.9543242 -3.1684227 -0.72207588 0.57139546
-4.8904629 -3.1759038 -0.71598238 0.53600085
-4.9096031 -3.2372868 -0.72207588 0.62984556
-4.8868833 -3.2714832 -0.72207588 0.85993725
-4.863925 -3.3055201 -0.72207588 0.97819263
-4.8407297 -3.339396 -0.72207588 0.98664457
-4.8172989 -3.3731089 -0.72207588 0.98751825
-4.793633 -3.4066575 -0.72207588 0.919689
-4.7697334 -3.4400401 -0.72207588 0.6408295
-4.7856483 -3.5025651 -0.72816932 0.85048681
-4.7610793 -3.5358896 -0.72816932 0.98767877
-4.7362785 -3.569042 -0.72816932 0.98216897
-4.7112465 -3.60202 -0.72816932 0.53808707
-4.7251987 -3.6652396 -0.73426276 0.97778255
-4.6994953 -3.6981382 -0.73426276 0.97239757
-4.712348 -3.7618179 -0.74035627 0.52145076
-4.6859708 -3.7946243 -0.74035627 0.98812455
-4.6593657 -3.827246 -0.74035627 0.74196714
-4.670661 -3.8914478 -0.74644971 0.98029673
-4.6433797 -3.92396 -0.74644971 0.812792
-4.653553 -3.9885774 -0.75254321 0.97936952
-4.6255941 -4.020968 -0.75254321 0.59270352
-4.6346359 -4.0859814 -0.75863665 0.98634142
-4.6138992 -4.1836286 -0.76473016 0.98639494
-4.6211104 -4.2493286 -0.7708236 0.6366927
-4.591332 -4.2814865 -0.7708236 0.97492957
-4.5973878 -4.3475337 -0.77691704 0.94336861
-4.5669246 -4.3795233 -0.77691704 0.56914872
-4.5718169 -4.4458981 -0.78301054 0.98789275
-4.5760036 -4.5125527 -0.78910398 0.7796976
-4.5443888 -4.5443888 -0.78910398 0.91523129
-4.5473986 -4.6113396 -0.79519749 0.98273957
-4.5496931 -4.6785522 -0.80129093 0.51681465
-4.5169201 -4.7102008 -0.80129093 0.89704359
-4.5180254 -4.7776775 -0.80738437 0.98810673
-4.5184064 -4.8453979 -0.81347787 0.93434614
-4.4844694 -4.8768239 -0.81347787 0.64264828
-4.4836497 -4.9447765 -0.81957132 0.97922683
-4.4820976 -5.0129533 -0.82566482 0.9878214
-4.4798107 -5.0813479 -0.83175826 0.74744123
-4.4767861 -5.1499529 -0.83785176 0.53284478
-4.4407239 -5.1810813 -0.83785176 0.83138973
-4.4364772 -5.2498617 -0.84394521 0.98065335
-4.4314857 -5.3188338 -0.85003865 0.96781498
-4.4257455 -5.3879905 -0.85613215 0.97352093
-4.4192538 -5.457324 -0.86222559 0.83393961
-4.4120088 -5.5268278 -0.86831909 0.53778398
-4.3733168 -5.5574946 -0.86831909 0.98272175
-3.513155 -4.5291324 -0.70379543 0.90786707
-3.451308 -4.5141234 -0.69770199 0.54008418
-3.3599768 -4.4588394 -0.68551505 0.79421204
-3.2991774 -4.4423461 -0.6794216 0.70316678
-3.2680838 -4.4652705 -0.6794216 0.69006097
-3.2078011 -4.4477258 -0.6733281 0.98881996
-3.1766722 -4.4700122 -0.6733281 0.97002602
-3.1453886 -4.4920802 -0.6733281 0.77484757
-3.1139514 -4.5139298 -0.6733281 0.55192399
-3.0823627 -4.5355587 -0.6733281 0.67249739
-3.0506237 -4.5569673 -0.6733281 0.91721052
-3.0187359 -4.5781531 -0.6733281 0.99097753
-2.986701 -4.5991163 -0.6733281 0.62765235
-2.9812584 -4.661664 -0.6794216 0.97544664
-2.9750867 -4.7243576 -0.68551505 0.92541277
-2.9943349 -4.8293681 -0.69770199 0.68868798
-3.8913739 -6.3750939 -0.91706681 0.58717591
-3.8723328 -6.444644 -0.92316025 0.91032773
-3.852509 -6.5142374 -0.92925376 0.88764668
-3.8319011 -6.5838656 -0.9353472 0.54620022
-3.835171 -6.6965861 -0.94753414 0.88227952
-2.740751 -4.8640494 -0.68551505 0.86275452
-2.706727 -4.8830647 -0.68551505 0.61292392
-2.6963274 -4.9454141 -0.69160855 0.59398741
-2.5807247 -4.8947802 -0.6794216 0.5877822
-3.7569294 -7.2478514 -1.0023754 0.84462041
-3.7512994 -7.3623395 -1.0145622 0.52589065
-3.7220306 -7.432723 -1.0206558 0.93875039
-3.6919608 -7.5030551 -1.0267493 0.84957743
-3.6394901 -7.5286469 -1.0267493 0.96626371
-3.5868421 -7.5538716 -1.0267493 0.72814804
-3.5549924 -7.6237059 -1.0328426 0.7974751
-3.5016828 -7.6483383 -1.0328426 0.88397348
-3.2040818 -7.1294055 -0.95972109 0.6296851
-3.1141777 -7.0607862 -0.94753414 0.8899647
-3.0450993 -7.0368094 -0.9414407 0.87527192
-2.9958992 -7.0578966 -0.9414407 0.77664846
-2.9274817 -7.0328231 -0.9353472 0.95873898
-2.8783123 -7.0530891 -0.9353472 0.98411256
-2.8290029 -7.0730119 -0.9353472 0.98393422
-2.7795553 -7.0925894 -0.9353472 0.9824186
-2.7299724 -7.1118212 -0.9353472 0.5611248
-2.6977174 -7.1771607 -0.9414407 0.98193717
-2.6646821 -7.242394 -0.94753414 0.93076211
-2.6308668 -7.3075137 -0.95362759 0.83019507
-3.1402521 -8.9172287 -1.1608055 0.86706966
-3.094079 -8.985858 -1.166899 0.89374489
-3.031271 -9.0072393 -1.166899 0.54463106
-2.9838157 -9.0753269 -1.1729925 0.87512928
-2.9355567 -9.1431885 -1.1790859 0.57695872
-2.871654 -9.1634588 -1.1790859 0.89267498
-2.8076115 -9.1832838 -1.1790859 0.67914838
-2.7576101 -9.2502193 -1.1851794 0.78454763
-2.6929648 -9.2692461 -1.1851794 0.8765201
-2.5764623 -9.3537874 -1.1912729 0.79094899
-2.5110981 -9.3715467 -1.1912729 0.90390855
-2.445612 -9.3888483 -1.1912729 0.90758175
-2.3800063 -9.4056931 -1.1912729 0.8539995
-2.3142846 -9.4220791 -1.1912729 0.70890838
-2.2599514 -9.4862823 -1.1973664 0.58391285
-2.19367 -9.5018291 -1.1973664 0.90768874
-2.1272819 -9.5169115 -1.1973664 0.62012768
-2.0712774 -9.5800371 -1.2034597 0.62157196
-2.0043461 -9.594264 -1.2034597 0.70776719
-1.9373174 -9.6080236 -1.2034597 0.7153632
-1.870194 -9.621314 -1.2034597 0.65550447
-1.8029795 -9.6341362 -1.2034597 0.55680966
-1.7356771 -9.6464882 -1.2034597 0.71081632
-1.5410391 -9.7297382 -1.2095532 0.51135838
3.8979421 -9.7455502 -1.2887683 0.51435399
3.9658833 -9.7181005 -1.2887683 0.51836598
4.1011825 -9.6617804 -1.2887683 0.52057701
4.6560335 -9.4623098 -1.2948618 0.51069862
4.7876945 -9.3963795 -1.2948618 0.50659746
4.8531761 -9.3627262 -1.2948618 0.52526659
5.1127067 -9.223567 -1.2948618 0.51349807
5.7706847 -8.886075 -1.3009553 0.50745338
5.8325801 -8.8455725 -1.3009553 0.53043759
6.0447292 -8.7623339 -1.3070487 0.52893978
6.1057539 -8.7199202 -1.3070487 0.54422098
6.1664815 -8.6770821 -1.3070487 0.57991868
6.2269082 -8.6338205 -1.3070487 0.58633786
6.2870312 -8.5901384 -1.3070487 0.5976249
6.346848 -8.5460386 -1.3070487 0.58838844
6.4063554 -8.5015211 -1.3070487 0.5792768
6.4655509 -8.4565897 -1.3070487 0.58093506
6.5244308 -8.4112453 -1.3070487 0.56838202
6.582993 -8.3654919 -1.3070487 0.5613209
6.6412344 -8.3193302 -1.3070487 0.55989444
6.6991515 -8.2727633 -1.3070487 0.56517243
6.756743 -8.2257929 -1.3070487 0.59614491
6.8140044 -8.178422 -1.3070487 0.56356764
6.870934 -8.1306524 -1.3070487 0.53710639
6.9275289 -8.0824871 -1.3070487 0.52819085
6.9837861 -8.033927 -1.3070487 0.57562143
7.0397029 -7.9849753 -1.3070487 0.61572343
7.0952764 -7.9356351 -1.3070487 0.58286083
7.1505041 -7.8859076 -1.3070487 0.51524556
7.2053838 -7.8357959 -1.3070487 0.53132915
7.2599115 -7.7853022 -1.3070487 0.52196783
7.4022532 -7.718998 -1.3131422 0.52337646
7.4559612 -7.6671329 -1.3131422 0.54447061
7.5093055 -7.6148939 -1.3131422 0.5290646
7.562284 -7.562284 -1.3131422 0.55172783
7.6148939 -7.5093055 -1.3131422 0.6087693
7.6671329 -7.4559612 -1.3131422 0.58726507
7.718998 -7.4022532 -1.3131422 0.57792163
7.7704873 -7.3481841 -1.3131422 0.5973931
7.8215971 -7.2937574 -1.3131422 0.60625511
7.8723264 -7.238975 -1.3131422 0.62249917
7.9226718 -7.1838398 -1.3131422 0.50713241
7.972631 -7.1283545 -1.3131422 0.52200347
8.0222015 -7.0725222 -1.3131422 0.60488212
8.0713806 -7.0163445 -1.3131422 0.51877606
8.2165499 -6.8457713 -1.3131422 0.51597661
8.3969002 -6.7031569 -1.3192357 0.55295819
8.4434919 -6.6443729 -1.3192357 0.65108234
8.4896717 -6.5852647 -1.3192357 0.62843692
8.5354385 -6.5258355 -1.3192357 0.65129632
8.5807896 -6.4660883 -1.3192357 0.65784031
8.6257219 -6.4060264 -1.3192357 0.6690917
8.6702337 -6.3456516 -1.3192357 0.66609609
8.714323 -6.2849679 -1.3192357 0.68786776
8.757987 -6.2239776 -1.3192357 0.68153775
8.8012257 -6.1626844 -1.3192357 0.63872546
8.8440342 -6.1010904 -1.3192357 0.64330798
8.8864117 -6.0391994 -1.3192357 0.61208588
8.9283562 -5.9770136 -1.3192357 0.53232765
9.0515718 -5.7887216 -1.3192357 0.50830925
9.0917635 -5.725389 -1.3192357 0.5718056
9.1315126 -5.6617775 -1.3192357 0.62296283
9.1708164 -5.5978899 -1.3192357 0.64314753
9.2096729 -5.53373 -1.3192357 0.5625869
9.2480812 -5.4692998 -1.3192357 0.58897686
9.2860384 -5.4046035 -1.3192357 0.65700227
9.3235426 -5.3396435 -1.3192357 0.58963662
9.3971872 -5.2089458 -1.3192357 0.57364219
9.4333229 -5.1432147 -1.3192357 0.57025427
9.4689989 -5.0772328 -1.3192357 0.57052171
9.5042143 -5.0110035 -1.3192357 0.58253986
9.5389652 -4.94453 -1.3192357 0.61741734
9.5732517 -4.8778157 -1.3192357 0.56050068
9.6070719 -4.8108635 -1.3192357 0.5722692
9.6404238 -4.7436767 -1.3192357 0.64689207
9.6733055 -4.6762586 -1.3192357 0.63836884
9.7057161 -4.608613 -1.3192357 0.57770765
9.7376537 -4.5407424 -1.3192357 0.60472167
9.7691164 -4.4726505 -1.3192357 0.52227098
9.8306122 -4.3358164 -1.3192357 0.52285939
9.8606424 -4.2670808 -1.3192357 0.52763808
9.9192591 -4.1289887 -1.3192357 0.58188009
9.9478426 -4.0596395 -1.3192357 0.56187367
9.9759417 -3.990092 -1.3192357 0.56297922
10.003554 -3.9203501 -1.3192357 0.66347492
10.03068 -3.8504171 -1.3192357 0.56595701
10.083462 -3.7099917 -1.3192357 0.5939517
10.134278 -3.5688429 -1.3192357 0.55438465
10.158947 -3.4980059 -1.3192357 0.63899291
10.18312 -3.4269984 -1.3192357 0.60311687
10.206797 -3.3558238 -1.3192357 0.62947112
10.229976 -3.2844858 -1.3192357 0.64915657
10.252656 -3.2129877 -1.3192357 0.63426769
10.274837 -3.1413329 -1.3192357 0.64448488
10.296516 -3.069525 -1.3192357 0.57829607
10.317695 -2.9975674 -1.3192357 0.57428408
10.33837 -2.9254639 -1.3192357 0.62257051
10.358541 -2.8532178 -1.3192357 0.6019935
10.378208 -2.7808325 -1.3192357 0.5613566
10.397369 -2.7083118 -1.3192357 0.62187511
10.43417 -2.5628779 -1.3192357 0.55663139
10.451808 -2.4899719 -1.3192357 0.62695694
10.468936 -2.4169443 -1.3192357 0.5476445
10.485555 -2.3437991 -1.3192357 0.5714311
10.501661 -2.2705395 -1.3192357 0.5439713
10.517257 -2.1971693 -1.3192357 0.62415749
10.532339 -2.123692 -1.3192357 0.65596807
10.546908 -2.0501113 -1.3192357 0.61402947
10.560965 -1.9764308 -1.3192357 0.59102744
10.574505 -1.9026537 -1.3192357 0.58516103
10.58753 -1.828784 -1.3192357 0.53942442
10.683584 -1.539528 -1.3253291 0.52198565
10.694072 -1.4649056 -1.3253291 0.5761742
10.722405 -1.2406247 -1.3253291 0.54286581
10.730805 -1.1657385 -1.3253291 0.59623408
10.759171 -0.86566234 -1.3253291 0.53564423
10.764952 -0.79052866 -1.3253291 0.52501696
10.770208 -0.71535647 -1.3253291 0.56895262
10.77494 -0.64014941 -1.3253291 0.63084412
10.733252 -0.48739409 -1.3192357 0.57553226
10.736393 -0.41245061 -1.3192357 0.53485966
10.739011 -0.33748701 -1.3192357 0.52738845
10.691492 -0.26129445 -1.3131422 0.5751043
10.693056 -0.18664798 -1.3131422 0.65812558
10.694098 -0.11199243 -1.3131422 0.68715453
10.694619 0.037331417 -1.3131422 0.6879034
10.694098 0.11199243 -1.3131422 0.68021828
10.693056 0.18664798 -1.3131422 0.70625156
10.741105 0.26250696 -1.3192357 0.51059163
10.736393 0.41245061 -1.3192357 0.59024286
10.733252 0.48739409 -1.3192357 0.64439571
10.729588 0.56231385 -1.3192357 0.52323383
10.7254 0.6372062 -1.3192357 0.5973931
10.720691 0.71206748 -1.3192357 0.6833387
10.715458 0.78689402 -1.3192357 0.66194147
10.709703 0.8616823 -1.3192357 0.69205809
10.703426 0.93642849 -1.3192357 0.69296741
10.696629 1.0111291 -1.3192357 0.72315538
10.689309 1.0857804 -1.3192357 0.694911
10.681468 1.1603788 -1.3192357 0.66991192
10.673107 1.2349206 -1.3192357 0.70075959
10.664226 1.3094022 -1.3192357 0.66379589
10.654824 1.3838201 -1.3192357 0.65757287
10.644904 1.4581704 -1.3192357 0.66582859
10.634464 1.5324497 -1.3192357 0.64175671
10.574438 1.5992334 -1.3131422 0.54341859
10.563016 1.6730173 -1.3131422 0.55984092
10.551078 1.7467197 -1.3131422 0.66631007
10.538627 1.8203369 -1.3131422 0.71725333
10.525661 1.8938655 -1.3131422 0.72281659
10.512184 1.9673017 -1.3131422 0.65218788
10.498194 2.040642 -1.3131422 0.54842907
10.483691 2.113883 -1.3131422 0.63089764
10.420099 2.1768723 -1.3070487 0.51187545
10.404649 2.2495646 -1.3070487 0.56857812
10.437122 2.3329732 -1.3131422 0.57676262
10.372226 2.3946168 -1.3070487 0.61718553
10.355255 2.4669697 -1.3070487 0.66545415
10.33778 2.5392025 -1.3070487 0.68296421
10.319801 2.6113112 -1.3070487 0.60144073
10.30132 2.6832929 -1.3070487 0.54582578
10.282336 2.7551436 -1.3070487 0.55664921
10.215006 2.8136814 -1.3009553 0.5991227
10.195113 2.8849263 -1.3009553 0.61891514
10.174725 2.9560308 -1.3009553 0.65891016
10.15384 3.0269911 -1.3009553 0.74797618
10.132461 3.0978041 -1.3009553 0.74886775
10.110587 3.1684659 -1.3009553 0.68713671
10.088221 3.2389731 -1.3009553 0.74786919
10.065363 3.3093228 -1.3009553 0.68826002
10.042014 3.3795111 -1.3009553 0.64897829
10.018176 3.4495347 -1.3009553 0.63774472
9.9938498 3.5193901 -1.3009553 0.66108555
9.9690361 3.5890739 -1.3009553 0.60194004
9.943737 3.6585829 -1.3009553 0.5934881
9.9179535 3.7279136 -1.3009553 0.52120107
9.8916864 3.7970626 -1.3009553 0.52150422
9.8187313 3.8479187 -1.2948618 0.55508006
9.7818098 4.0717745 -1.3009553 0.53981668
9.7074623 4.1205735 -1.2948618 0.50053495
9.6784592 4.1882434 -1.2948618 0.71035272
9.648984 4.2557092 -1.2948618 0.72497416
9.6190386 4.3229675 -1.2948618 0.74970579
9.588625 4.3900151 -1.2948618 0.77265435
9.5577431 4.4568491 -1.2948618 0.77745086
9.5263958 4.5234652 -1.2948618 0.76864237
9.4945841 4.5898614 -1.2948618 0.69822758
9.4623098 4.6560335 -1.2948618 0.70584142
9.429574 4.7219791 -1.2948618 0.63647872
9.2503157 4.9599757 -1.2887683 0.69776398
9.2154636 5.0244336 -1.2887683 0.70527083
9.1801624 5.0886469 -1.2887683 0.74341142
9.144413 5.1526122 -1.2887683 0.67203379
9.1082182 5.2163258 -1.2887683 0.65493387
9.0715799 5.2797856 -1.2887683 0.59047467
8.9917831 5.3177257 -1.2826748 0.64336151
8.9544392 5.3803701 -1.2826748 0.70887274
8.9166594 5.4427524 -1.2826748 0.72217464
8.8784447 5.504869 -1.2826748 0.7879355
8.839798 5.5667176 -1.2826748 0.73939943
8.8007193 5.6282949 -1.2826748 0.66270816
8.7612123 5.6895981 -1.2826748 0.61037409
8.7212782 5.7506237 -1.2826748 0.51882958
8.5990915 5.8439364 -1.2765814 0.58744341
8.5580835 5.9038267 -1.2765814 0.73117936
8.5166588 5.963429 -1.2765814 0.77404517
8.4748192 6.0227404 -1.2765814 0.71555936
8.3899021 6.1404805 -1.2765814 0.50463605
8.3069878 6.1693139 -1.2704879 0.69312793
8.2637157 6.2271566 -1.2704879 0.77709424
8.2200413 6.2846961 -1.2704879 0.81600159
8.1759663 6.3419294 -1.2704879 0.74781573
8.1314917 6.3988533 -1.2704879 0.57362431
8.0478373 6.4245038 -1.2643944 0.67556435
8.0027895 6.4805312 -1.2643944 0.6641525
7.9573526 6.536243 -1.2643944 0.70914018
7.9115272 6.5916362 -1.2643944 0.75765842
7.8653169 6.646708 -1.2643944 0.74293
7.8187227 6.7014556 -1.2643944 0.61146176
7.7717476 6.755877 -1.2643944 0.52606899
7.6871676 6.7771497 -1.258301 0.53605437
7.639667 6.8306508 -1.258301 0.69537461
7.5917945 6.8838186 -1.258301 0.711797
7.5435514 6.9366512 -1.258301 0.73346174
7.4949412 6.9891458 -1.258301 0.7941764
7.4459658 7.0412998 -1.258301 0.74298346
7.3966269 7.0931101 -1.258301 0.61089122
7.3469276 7.1445751 -1.258301 0.55456299
7.2113662 7.2113662 -1.2522075 0.60950035
7.1608458 7.2615347 -1.2522075 0.7048251
7.1099768 7.3113494 -1.2522075 0.83893228
7.0587611 7.3608079 -1.2522075 0.8234728
7.0072012 7.4099078 -1.2522075 0.71427554
6.9214544 7.4223509 -1.246114 0.54989123
6.8694682 7.4704905 -1.246114 0.74601477
6.8171473 7.5182662 -1.246114 0.78082097
6.7644944 7.5656753 -1.246114 0.7925359
6.7115116 7.6127157 -1.246114 0.76817876
6.6582017 7.6593847 -1.246114 0.65812558
6.6045671 7.7056808 -1.246114 0.67889875
6.550611 7.7516012 -1.246114 0.66267252
6.4963355 7.7971439 -1.246114 0.54689562
6.410243 7.8039579 -1.2400205 0.62362254
6.3556056 7.8485193 -1.2400205 0.68027174
6.3006582 7.8926978 -1.2400205 0.6895082
6.2454038 7.9364924 -1.2400205 0.73353302
6.1898446 7.9798994 -1.2400205 0.74127173
6.1339841 8.0229177 -1.2400205 0.72534859
6.0778246 8.0655451 -1.2400205 0.6880461
6.0213685 8.1077795 -1.2400205 0.69567776
5.9646196 8.1496191 -1.2400205 0.55286902
5.8785496 8.1508102 -1.2339271 0.50328094
5.8215032 8.1916513 -1.2339271 0.59771407
5.7641735 8.2320929 -1.2339271 0.57619202
5.7065625 8.2721338 -1.2339271 0.67699081
5.6486735 8.3117704 -1.2339271 0.6721943
5.5905094 8.3510036 -1.2339271 0.75564355
5.5320725 8.3898287 -1.2339271 0.8363111
5.4733663 8.4282446 -1.2339271 0.82586211
5.4143929 8.4662504 -1.2339271 0.72021323
5.3551559 8.5038433 -1.2339271 0.52152205
5.2695065 8.4988441 -1.2278336 0.59491462
5.2100453 8.5354252 -1.2278336 0.74861807
5.1503305 8.5715895 -1.2278336 0.78117758
5.0903645 8.607336 -1.2278336 0.86063266
5.0301504 8.642664 -1.2278336 0.83830822
4.8846273 8.6688175 -1.2217401 0.73212439
4.8239889 8.7027063 -1.2217401 0.83648944
4.7631159 8.7361727 -1.2217401 0.6762954
4.7020102 8.7692118 -1.2217401 0.68481869
4.6175299 8.757925 -1.2156467 0.54942763
4.5562758 8.7899475 -1.2156467 0.76470166
4.4948001 8.8215418 -1.2156467 0.82058412
4.433105 8.852706 -1.2156467 0.7904675
4.3711939 8.8834391 -1.2156467 0.65568274
4.3090696 8.9137392 -1.2156467 0.57838523
4.2254486 8.8987741 -1.2095532 0.57897365
4.1632214 8.9280567 -1.2095532 0.74234158
4.1007905 8.9569035 -1.2095532 0.57688743
4.0381603 8.9853144 -1.2095532 0.55174565
3.975333 9.0132866 -1.2095532 0.52321601
3.8926027 8.9952736 -1.2034597 0.82115471
3.8297095 9.0222301 -1.2034597 0.82855463
3.7666297 9.0487461 -1.2034597 0.61452872
3.703366 9.0748215 -1.2034597 0.5355016
3.6214921 9.0543766 -1.1973664 0.52713883
3.558193 9.0794382 -1.1973664 0.71154737
3.4947205 9.1040583 -1.1973664 0.8006134
3.4310775 9.1282339 -1.1973664 0.81300598
3.3672671 9.1519642 -1.1973664 0.8648051
3.303293 9.1752491 -1.1973664 0.88243997
3.2391577 9.1980867 -1.1973664 0.83704221
3.1748645 9.2204762 -1.1973664 0.63355446
3.0303166 9.2167606 -1.1912729 0.55425984
2.9658983 9.2376909 -1.1912729 0.7954424
2.9013352 9.258172 -1.1912729 0.87118864
2.8366308 9.2782011 -1.1912729 0.84934562
2.7717881 9.2977781 -1.1912729 0.77723688
2.7068105 9.3169022 -1.1912729 0.60489994
2.6417007 9.3355722 -1.1912729 0.6325559
1.6074737 6.1711869 -0.78301054 0.61829108
1.5643519 6.1822586 -0.78301054 0.5572198
1.4663806 6.1552215 -0.77691704 0.65559357
1.4233737 6.165309 -0.77691704 0.63412505
1.3802974 6.1750956 -0.77691704 0.60506046
1.3371538 6.1845813 -0.77691704 0.55545449
1.1978711 6.1625128 -0.7708236 0.51988161
1.1548198 6.1707249 -0.7708236 0.61517066
1.1117122 6.1786366 -0.7708236 0.64740914
1.0685505 6.1862473 -0.7708236 0.6750294
1.086616 9.3913479 -1.1608055 0.52323383
1.0210261 9.3987055 -1.1608055 0.62171465
0.95538646 9.4056044 -1.1608055 0.61593735
0.88970017 9.4120445 -1.1608055 0.72957456
0.82397056 9.4180269 -1.1608055 0.75015157
0.75820082 9.4235497 -1.1608055 0.73777682
0.69239408 9.4286127 -1.1608055 0.78650904
0.6265536 9.433217 -1.1608055 0.78711528
0.56068259 9.4373617 -1.1608055 0.77996504
0.49218693 9.3914862 -1.1547121 0.73859704
0.42661053 9.3946934 -1.1547121 0.87956917
0.36101335 9.3974428 -1.1547121 0.89151597
0.29539856 9.3997345 -1.1547121 0.91672909
0.22976936 9.4015675 -1.1547121 0.9217931
0.16412897 9.4029427 -1.1547121 0.93571913
-0.1060992 6.0784192 -0.74644971 0.53988802
-0.14610665 5.9783053 -0.73426276 0.62827647
-0.18783918 5.9771399 -0.73426276 0.96303624
-0.22956258 5.9756827 -0.73426276 0.73617202
-0.2667723 5.8747821 -0.72207588 0.90480012
-0.34288463 5.7714047 -0.70988894 0.82281303
-0.37987894 5.7193522 -0.70379543 0.79936522
-0.41979799 5.7165608 -0.70379543 0.76662743
-0.45571649 5.6640234 -0.69770199 0.9465782
-0.49092209 5.6112652 -0.69160855 0.68258977
-0.52541351 5.5582943 -0.68551505 0.86833566
-0.55918944 5.5051174 -0.6794216 0.87156308
-0.59760845 5.5010796 -0.6794216 0.86131024
-0.64170241 5.546072 -0.68551505 0.75221997
-0.68040532 5.5414567 -0.68551505 0.8959381
-0.71268332 5.4873576 -0.6794216 0.61509931
-0.75097466 5.4822483 -0.6794216 0.92954957
-0.82002455 5.4221597 -0.6733281 0.94483078
-0.85785806 5.4163027 -0.6733281 0.87783957
-0.89564979 5.4101815 -0.6733281 0.62107271
-0.93339783 5.4037971 -0.6733281 0.94370741
-0.96231216 5.3483062 -0.66723466 0.87026143
-0.99962664 5.3414578 -0.66723466 0.88170892
-1.0368924 5.3343487 -0.66723466 0.89265716
-1.0741075 5.3269801 -0.66723466 0.72805893
-1.1214191 5.3679299 -0.6733281 0.88784277
-1.1588666 5.3599706 -0.6733281 0.83657861
-1.1962577 5.3517494 -0.6733281 0.95481616
-1.2335905 5.3432674 -0.6733281 0.96333939
-1.2593622 5.2862492 -0.66723466 0.88919795
-1.308074 5.3255234 -0.6733281 0.98393422
-1.3452209 5.3162613 -0.6733281 0.86225528
-1.3823024 5.3067403 -0.6733281 0.54029816
-1.4321609 5.3448973 -0.6794216 0.78258622
-1.4562613 5.2869234 -0.6733281 0.61460006
-1.4931352 5.276628 -0.6733281 0.67681253
-1.5160908 5.2184186 -0.66723466 0.62296283
-1.5524849 5.2077069 -0.66723466 0.91861916
-1.6033131 5.2442007 -0.6733281 0.99614847
